ply
    format ascii 1.0           
    element vertex 74
    property double x           
    property double y           
    property double z           
    end_header
0.237188 -0.287398 3.60769
-0.288077 -0.65366 4.06136
1.52425 -0.955886 4.04731
-0.00596621 -0.568212 3.76572
0.225908 -0.427241 3.48492
0.656334 -0.203464 3.08224
1.01053 -0.546159 3.16095
1.66754 -0.410269 3.89599
1.27245 -0.924346 3.73479
0.483808 -0.260428 3.31284
0.854697 -0.639804 3.12518
1.13642 -0.231165 3.42446
1.2066 -0.310625 3.13036
-0.211965 -0.0961186 3.53707
-0.380232 -0.00517164 3.88209
-0.0358091 -1.09411 3.94507
0.0424663 -0.241208 3.66659
0.354156 -0.63111 2.94779
1.42949 -0.548715 3.38817
0.928687 -0.204983 3.31508
-0.13767 -0.388963 3.47712
0.560841 -0.306468 2.92169
-0.0709515 0.00209814 3.74365
-0.309323 -0.946018 4.40251
0.687485 -0.429612 3.00303
-0.132107 -0.892698 3.73066
1.04557 -0.33511 3.22934
0.798625 -0.272169 3.04844
1.20603 -0.673049 3.22986
0.823007 -0.41377 2.84661
1.49772 -0.719593 3.47695
-0.149806 -0.854316 3.88634
0.0966395 -0.0981264 3.86772
-0.353518 -0.409455 4.3211
1.00788 -0.850186 3.4723
0.497604 -0.503997 3.23008
0.702465 -0.621224 3.11029
0.231971 -0.89013 3.52295
0.362668 -0.933685 3.33786
-0.467758 -0.353017 5.09764
1.1172 -0.442052 2.95633
0.578308 -0.932277 3.327
0.505701 -0.678182 2.82991
0.777161 -0.863445 3.299
0.329434 -0.279863 3.15734
0.306131 -0.589168 3.43888
0.61861 -0.162161 3.38031
0.478101 -0.169447 3.86155
-0.240336 0.04159 3.89571
-0.227348 -0.629066 3.7867
0.0778146 -0.677407 3.19685
0.530722 -0.848794 2.91142
0.806718 -0.606411 2.87725
-0.214659 -1.27639 4.82393
1.51352 -0.846088 4.00471
0.202167 -0.339309 3.37955
-0.318467 -0.303356 3.66993
1.28713 -0.790152 3.74447
-0.292408 -0.993934 4.11549
1.27192 -0.500358 3.26583
0.712222 -0.793652 2.96067
0.0260955 -1.06853 4.40086
0.122246 -1.00665 3.87008
-0.445988 -0.335845 5.78423
1.36162 -0.825463 3.46712
1.00915 -0.767696 3.35449
1.12913 -0.0462556 3.5824
0.351264 0.0485768 3.59155
0.234451 -0.81342 3.09562
-0.114467 -0.712351 3.55254
0.19471 -0.925221 3.66333
1.41374 -0.645246 3.68022
0.012596 -0.977246 3.25008
-0.316103 -0.266242 4.31458
