ply
    format ascii 1.0           
    element vertex 82
    property double x           
    property double y           
    property double z           
    end_header
-0.00563483 0.0211853 0.364561
-4.91421 0.138724 67.7226
-0.0535048 0.0191816 0.468516
0.0108067 0.0366238 0.35238
-0.0402731 -0.00112417 0.42933
0.0137452 0.0142353 0.138634
-0.0146318 0.01492 0.206451
0.000599693 -0.0152585 0.219648
-0.0275872 0.029693 0.286159
-1.72609 -0.157851 10.8807
0.0274419 0.0131475 0.467112
-0.0522072 -0.0143523 0.38752
-0.0171053 0.00339475 0.0472244
0.0409485 0.0235615 0.3354
-0.0187554 0.0111092 0.10768
0.048271 0.00734669 0.31174
-0.0671233 0.00746995 0.170534
-0.579173 0.253401 11.2406
-0.0902995 0.00036283 0.349083
-0.146403 -0.0418421 0.636139
-0.0424989 -0.0066662 0.14821
-0.106779 0.019819 0.416683
-0.0999784 0.0589403 0.813366
-0.0173463 0.0381788 0.380725
-0.143786 0.0209714 0.485795
-0.703424 0.0919087 3.46186
0.0174356 0.021339 0.29166
0.0626968 -0.00729203 0.448165
-1.65015 0.552414 9.58831
0.00420294 -0.00142804 0.513483
-0.377676 -0.397247 6.43227
-0.0119679 -0.0025323 0.315273
-0.14188 -0.00850866 0.434709
0.0281769 -0.0198362 0.364219
0.0135254 -0.0274156 0.317039
0.0260628 0.0422627 0.390767
-0.0477717 0.00630127 0.29779
-0.17788 0.0121554 0.604889
-0.137563 -0.0444472 0.757126
-0.199296 -0.0235806 0.542854
-0.221855 -0.00220427 0.545819
-0.0648516 0.0223008 0.300118
-0.178663 -0.000992568 0.467647
0.0422514 -0.0225705 0.353727
0.015067 -0.00858792 0.314861
-0.219573 0.0207506 0.629442
-0.0720962 -0.00152037 0.342317
-0.0676818 -0.0460324 0.783154
-0.145728 -0.0187755 0.516845
-0.0418982 0.0216297 0.257063
0.00142459 -0.0133726 0.428104
0.026488 -0.0515281 0.480384
1.44297 -0.869186 14.9524
-0.149202 -0.0316784 0.506677
-0.103821 -0.0151221 0.448295
-1.06671 -0.325345 6.04177
0.128734 0.0503331 0.537828
-0.0379706 -0.0575244 0.71748
0.0304805 -0.0652566 0.788212
0.0211146 0.00425074 0.337919
0.0970912 2.74952 -24.629
-0.0617821 -0.0629297 0.703303
-0.00350406 0.00981718 0.499142
0.0569258 -0.0178635 0.399942
-0.0823258 0.0278071 0.387736
-0.0131343 0.0159521 0.273284
0.0588635 -0.0527026 0.502454
-0.0661462 0.0158485 0.32074
-0.00263974 -0.0589944 0.518831
-0.0756541 -0.0255062 0.413917
-0.0227955 -0.0289849 0.391446
-0.0335947 0.0367631 0.362255
-0.0213002 0.0230884 0.313012
-0.113663 0.0111059 0.387889
-0.0704406 0.036862 0.406365
-0.055638 0.0251276 0.333555
0.0615161 0.00232978 0.390726
0.0164029 -0.0535005 0.451604
-0.0363893 -0.0316551 0.444469
-0.242846 0.0142156 0.630079
0.0487629 0.0297211 0.478796
-0.151904 0.0220707 0.426645
