ply
    format ascii 1.0           
    element vertex 75
    property double x           
    property double y           
    property double z           
    end_header
-1.98146 -0.170206 7.96867
0.0756464 -0.0703012 4.98912
-0.829351 0.0163532 4.73669
-1.05457 0.632538 4.89377
-0.624379 0.0727669 4.79027
-0.099167 -0.332617 4.77796
-0.362705 0.543491 5.03344
-1.5383 0.549426 5.06728
-0.475629 0.542199 4.86575
-0.905629 -0.18999 5.03794
-0.475206 -0.122382 4.86202
-0.106402 -0.626184 4.75116
-0.553129 -0.847133 5.12055
-1.01471 -0.0735797 4.86589
-0.958135 0.218094 4.61568
0.328327 -0.0961723 5.03303
-0.821606 0.432296 4.5839
-0.141929 0.461319 4.86992
-0.440086 -1.1043 5.07759
0.101059 -0.765159 4.94627
-0.175628 -0.81437 4.93032
-0.417118 -0.902713 4.89254
-1.56882 0.150377 4.7609
0.171909 -0.339137 4.74434
-1.2881 0.618169 4.90141
-1.50046 -0.0699849 4.88449
-1.48501 0.384467 4.68591
-0.17615 -0.0858285 4.96868
-0.529328 0.323497 4.72881
-1.37102 0.0262261 4.69807
-1.08038 0.422444 4.70056
-0.279312 -0.37628 4.97028
0.299833 -0.56638 4.90816
-1.91227 0.138681 5.00551
-1.13226 0.0749633 4.7023
-0.495116 0.718268 4.97875
-0.230187 -1.17452 5.21152
-1.74568 0.0941876 4.87692
-0.682743 0.625065 4.71777
-1.74475 0.440566 4.78884
-0.71208 0.218802 4.63662
-0.378266 -0.629595 4.93648
-0.074486 -1.00959 5.06104
-1.2897 0.265668 4.65872
-1.92749 0.340741 4.87766
-1.28819 0.493552 4.86305
0.209891 0.195899 5.19934
-0.741735 -0.0550404 4.94923
-1.73158 -0.0271229 5.05943
-1.2484 0.00923357 5.30622
-1.25916 -0.0605606 4.92034
1.97788 -0.111657 4.83619
0.184962 -0.0797425 4.87558
-0.557418 -0.12192 5.13049
-0.0719 0.400066 5.68743
3.32325 -2.15505 6.80133
1.97873 -0.0563948 4.93705
-1.30236 0.620353 4.9364
-0.527005 0.318264 4.70963
3.52235 -1.92774 6.98112
-1.05101 0.625975 4.86007
2.98877 -1.93332 5.70192
0.174085 -0.346598 4.76011
-0.367718 -0.641059 4.92515
-0.0996591 -0.34329 4.72605
2.58609 0.442362 5.9736
-0.278431 -0.382839 5.0082
-0.0148604 0.341251 6.36219
0.212425 0.208464 5.27254
-2.56349 1.91209 11.8494
-1.6815 1.34895 14.3063
0.996589 0.287106 14.8755
-0.787377 2.14694 12.4018
-2.545 1.86722 10.2767
-1.11442 2.32541 12.7444
