ply
    format ascii 1.0           
    element vertex 69
    property double x           
    property double y           
    property double z           
    end_header
-0.0567973 0.84972 2.39191
-0.192391 -0.031764 4.02277
-0.109801 0.483904 2.3386
-0.127817 0.238039 2.23132
0.085328 0.375682 2.26173
0.0704513 0.732832 2.31268
0.344956 0.028278 2.68396
0.445125 -0.0114895 2.54847
0.0178053 0.0622786 2.31696
0.444891 -0.15602 2.37041
0.472745 -0.263073 2.42113
0.0393549 -0.121175 2.35371
0.113828 -0.37753 2.40849
0.26498 -0.356794 2.50818
0.00462434 0.557435 2.27588
-0.0843347 0.123655 2.24319
0.179032 0.367426 2.35928
0.165578 0.504173 2.32948
0.103751 0.626931 2.36336
-0.0903787 -0.14828 2.39423
0.409117 -0.300554 2.35679
0.314341 -0.0592332 2.42052
-0.0783497 -0.275563 2.39121
-0.0472088 -0.475442 2.61101
-0.105064 0.745658 2.31684
0.549436 -0.0908017 2.41165
0.0444091 -0.463333 2.4948
-0.0271582 0.443782 2.23502
0.234415 0.237909 2.34784
0.091686 -0.290454 2.29127
0.247738 -0.0910461 2.37227
0.0257961 0.296304 2.24081
0.230108 0.142334 2.85506
0.189993 0.122257 2.34856
0.397643 -0.280619 2.52153
-0.150865 -0.378502 2.46526
-0.128628 0.369756 2.26762
-0.245842 0.952232 2.48441
-0.160002 -0.0232475 2.38339
-0.176569 0.187586 2.35055
-0.0635462 -0.00778077 2.27869
-0.156346 0.336526 2.38484
-0.0818306 0.0728718 2.41269
-0.154918 0.886467 2.45437
-0.24318 0.787081 2.4852
0.0476751 -0.455376 2.55032
0.86661 -0.644026 2.35499
-0.17033 0.576985 2.46922
-0.171196 0.432033 2.43753
0.463876 0.00242917 2.57912
0.234998 -0.354666 2.46729
0.0142574 0.0608521 2.31288
0.087419 0.399518 2.30936
0.0992384 0.628964 2.37433
-0.093716 -0.409515 2.31806
0.175288 0.367537 2.37933
0.201007 0.236772 2.38024
0.390111 -0.0167603 2.58281
0.291479 0.0322468 2.49098
0.387711 -0.314262 2.27989
0.237252 -0.0939515 2.29289
-0.182834 -0.480644 2.62079
-0.121517 0.249258 2.26813
0.233555 0.164511 2.56049
0.286835 -0.167788 2.34889
0.411963 -0.170323 2.34746
0.191736 -0.853226 2.15966
0.110812 -0.204755 2.37536
-0.156162 0.623928 2.34016
