ply
    format ascii 1.0           
    element vertex 70
    property double x           
    property double y           
    property double z           
    end_header
1.30697e-05 -2.10585e-05 -0.000127
-0.00216406 0.000615486 0.0429403
7.47748e-05 -1.32355e-05 -0.000368314
2.93802e-07 -8.68309e-06 -4.86527e-05
5.52014e-05 -2.48509e-05 -0.000206019
-2.47622e-06 -6.4749e-06 -4.63744e-05
-0.00273554 8.66806e-05 0.018101
3.16442e-05 -2.2753e-05 -0.000175686
2.16255e-05 -2.53315e-05 -0.00013531
7.45266e-05 -2.11008e-05 -0.000245262
4.31005e-05 -2.13928e-05 -0.000195888
7.64599e-05 -1.10404e-05 -0.000297215
0.191126 -0.368192 4.08059
1.69049e-05 -2.44395e-05 -0.000192419
-0.25938 -0.0122088 2.65232
-0.021449 -0.0279828 0.793379
7.35485e-06 -2.08564e-05 -0.000310191
-3.04966e-07 1.58718e-07 2.74392e-06
-0.0535892 0.154949 0.965578
0.000132433 -5.26976e-05 -0.000505498
4.04538e-05 -1.34987e-05 -0.000215475
2.62275e-05 -3.029e-05 -0.000205237
1.13048e-05 -6.01081e-06 -9.07605e-05
5.0414e-05 -3.26913e-05 -0.000303647
0.0111779 0.155847 0.992723
0.000113642 -1.42854e-05 -0.000378409
0.0554079 0.0173867 0.793275
3.18939e-05 -2.1199e-05 -0.000244904
-2.49457e-06 -6.81163e-06 -6.23927e-05
1.07285e-05 -1.76271e-05 -9.10751e-05
4.85185e-06 -1.69358e-05 -9.48634e-05
-1.93427e-06 -2.73265e-06 -2.01311e-05
0.00446774 -0.0110267 0.317938
4.86695e-06 -2.22669e-05 -0.000170076
0.000105341 -2.21668e-05 -0.000354965
-0.0123297 -0.320952 4.17581
0.0234718 0.0264219 1.01128
6.7564e-05 -2.77142e-05 -0.000321591
-2.81881e-06 -2.54015e-06 -3.08883e-05
7.04366e-05 -1.93464e-05 -0.000272247
3.86918e-05 -7.88896e-06 -0.000298114
1.33732e-05 2.73433e-06 -0.000166529
6.35602e-06 -4.67255e-06 -0.000135704
0.000133802 6.63841e-06 -0.000656228
-0.000619406 -0.000492413 0.00888044
8.32261e-05 -3.29928e-06 -0.000529992
-0.0105988 -0.0181135 0.315999
0.000101499 1.16967e-05 -0.000640217
-3.06319e-06 -6.10046e-06 -4.41445e-05
0.00805331 0.00961232 1.00105
-1.44943e-06 -1.08999e-05 -6.49073e-05
1.00352e-05 -2.71042e-05 -0.000168022
-0.00892144 0.0102618 0.0699541
0.00312736 0.00335824 0.0296413
1.09372e-05 -2.103e-05 -0.000101124
2.63719e-05 -2.9167e-05 -0.000191733
3.01913e-05 -2.44541e-05 -0.00016316
-4.33118e-07 -5.6626e-09 1.49603e-06
-3.60499e-05 0.000402957 0.00439263
1.936e-06 -4.23436e-06 -1.84986e-05
-7.12955e-07 2.37831e-07 1.77418e-07
-1.18644e-06 3.66594e-07 8.45491e-06
-7.40524e-08 1.79502e-07 3.70353e-06
0.0077098 0.00116424 0.170992
2.47465e-06 -2.07382e-05 -0.000168176
-2.44272e-07 4.77312e-07 2.21881e-06
0.161444 -0.241916 4.25537
-5.99248e-07 3.14294e-07 6.29809e-06
-1.32218e-06 -1.60006e-07 -8.02242e-07
5.66929e-08 7.48143e-08 2.22266e-06
