ply
    format ascii 1.0           
    element vertex 64
    property double x           
    property double y           
    property double z           
    end_header
-0.0964129 0.157274 0.944153
-0.0531721 0.0192315 1.09727
0.000251151 -4.93572e-05 -0.00124903
9.91496e-07 -2.77777e-05 -0.000155052
0.000184875 -8.64581e-05 -0.000702419
-8.39603e-06 -2.25599e-05 -0.000161982
0.000746553 -4.13164e-05 -0.0049026
0.000102226 -7.65168e-05 -0.000578455
6.55912e-05 -7.68565e-05 -0.000409678
0.000245765 -7.28043e-05 -0.000817063
0.000137915 -7.22438e-05 -0.000634319
0.000227819 -3.86081e-05 -0.000880274
0.196377 -0.362922 4.12284
5.44229e-05 -8.18235e-05 -0.000642344
-0.245208 -0.0086094 2.51623
-0.0305496 -0.037074 1.13415
2.63388e-05 -8.73324e-05 -0.00131317
-1.13024e-07 2.34386e-08 1.08267e-06
-0.0535892 0.154949 0.965578
0.000311233 -0.000125214 -0.00118947
0.000104446 -3.95741e-05 -0.000534273
8.39964e-05 -9.81226e-05 -0.000662202
2.60276e-05 -1.24382e-05 -0.000167663
0.00020536 -0.000134705 -0.00124654
0.0111779 0.155847 0.992723
0.000425981 -5.6165e-05 -0.00144415
-1.20822e-05 -5.94395e-06 -0.000166824
0.000117832 -8.1295e-05 -0.000943767
-8.19182e-06 -2.23498e-05 -0.000205172
3.79801e-05 -6.36266e-05 -0.000327844
1.33384e-05 -4.87864e-05 -0.000270321
-5.7582e-06 -8.81968e-06 -6.43866e-05
-0.000346213 0.000833761 -0.0234831
1.47868e-05 -7.63019e-05 -0.000580349
0.00042309 -9.2164e-05 -0.00143221
-0.00963857 -0.305976 4.14577
0.0225882 0.0240301 0.944492
0.000242585 -0.000100518 -0.00116045
-1.04078e-05 -9.82144e-06 -0.000118618
0.000256951 -7.38724e-05 -0.00101956
0.000170303 -4.0172e-05 -0.00139505
4.75529e-05 8.16907e-06 -0.000630391
2.23552e-05 -1.75426e-05 -0.000535999
0.000508742 1.23666e-05 -0.00251716
-0.00075536 -0.000566805 0.0106527
0.000229438 -1.62975e-05 -0.00142501
-3.5375e-06 -2.33699e-05 0.000460393
0.000336954 3.58426e-05 -0.00211549
2.50553e-06 3.94935e-05 -0.000339468
0.00350512 -0.00030496 0.0111506
0.000367126 1.45823e-05 -0.00137681
0.00174493 0.00222889 0.0268214
-0.0113696 0.00809961 1.14595
-1.31651e-06 -2.59405e-05 -0.000137851
1.36163e-05 -3.18492e-05 -0.000147428
-9.18001e-06 1.53413e-05 0.000160957
-9.09684e-06 -1.29712e-05 -7.67968e-05
-3.88285e-06 -1.11271e-05 -6.46909e-05
-4.94881e-09 5.93578e-10 1.7175e-08
-6.52225e-05 -0.00103584 -0.0111786
4.58976e-05 -8.32416e-05 -0.000440101
0.000244602 -0.000226411 0.00646192
-1.27802e-07 2.89918e-06 2.10911e-05
0.0971521 -0.318616 4.09544
