ply
    format ascii 1.0           
    element vertex 96
    property double x           
    property double y           
    property double z           
    end_header
-0.0175613 0.052709 1.64839
-0.0309435 0.0978842 1.62433
-0.118225 0.00952076 1.67169
-0.200859 0.0760446 1.623
0.0498958 0.171484 1.62139
-0.161706 -0.00337761 1.64948
0.157604 0.159452 1.61331
-0.116589 0.0789883 1.67292
0.00498494 -0.135232 1.67647
-0.928361 0.100413 3.52933
-0.163275 0.167915 1.64455
-0.267352 -0.0176754 1.68644
0.100246 0.0614734 1.61779
-0.0865281 -0.041056 2.62741
-0.582353 0.103861 1.62091
0.204926 0.109668 1.59
-0.288276 0.122185 1.60013
0.246564 0.0249641 1.55701
-0.618726 0.0636692 1.5803
-0.0824948 0.0549937 1.65249
-0.432468 -0.0117336 1.63958
-0.385692 -0.0776415 1.80345
-0.474541 -0.0709186 1.66113
-0.432223 0.0788405 1.62627
-0.211777 0.136939 1.64316
-0.0915371 0.166292 1.59077
-0.492803 0.0787544 1.55881
-0.351994 0.0726931 1.65131
0.0980238 0.113019 1.61632
0.226478 -0.0267282 1.5658
-0.285224 0.0934159 1.64228
0.0176681 -0.00229479 1.64774
-0.0941649 -0.0907616 1.69143
-0.0640077 -0.0352816 1.65274
-0.658735 0.0138161 6.12411
-0.0448049 -0.074619 1.14285
-1.23795 0.162523 3.4091
0.0712346 -0.151275 1.65214
0.112898 0.191642 1.61175
-0.27319 0.00745024 1.64764
-0.488678 0.042684 1.636
-0.30826 -0.0881102 1.74631
-2.14242 -0.0990877 25.6796
-0.651618 0.0127612 1.56064
-0.359933 0.117642 1.62573
-0.617177 0.00555627 1.56984
0.191081 -0.115366 1.5803
0.0782269 -0.0673642 1.61476
-0.56763 0.0730581 1.46828
-0.358495 -0.0227112 1.60101
-0.45463 -0.0447291 0.11689
-0.458755 -0.0469092 2.85365
-0.335607 -0.0323579 0.323922
-0.287718 0.0746367 1.54336
0.0215929 -0.0478294 1.70188
0.914371 -0.383901 4.03974
0.0682915 -0.0720009 1.30252
-0.493504 -0.0654003 1.90559
-0.257487 -0.0560841 3.90389
-0.4583 -0.0408932 0.28268
0.500206 0.183706 1.69262
-0.0163322 -0.134226 1.98316
0.17582 -0.154517 1.96335
0.0826184 0.00119068 1.53904
-0.359353 -0.0632509 0.400322
-0.43786 -0.0553766 0.20547
0.194104 0.089707 2.37234
0.236441 -0.0620703 1.56758
-0.388457 0.0775641 1.25461
-0.0954369 0.0243126 1.58042
0.190311 -0.121271 1.57167
-0.357536 0.0472084 1.57179
0.00417617 -0.144733 1.67561
-0.303337 -0.101893 1.69717
-0.094562 -0.125774 1.64873
-0.181605 0.147655 1.55496
-0.0850485 0.0401631 1.7935
-0.487726 0.00483177 1.47252
0.252512 0.368434 7.20121
-0.297361 0.0745672 1.56873
0.25536 0.0287599 1.54421
0.0729349 -0.161749 1.63767
-0.20113 -0.0605468 1.35719
-0.602817 0.0764655 1.42214
0.16858 0.165184 1.60326
-0.578238 0.0385146 1.53019
-0.202576 0.00752042 0.558838
0.148969 0.0592657 1.51914
-0.00274142 0.163994 1.58113
0.0345971 0.231219 1.5567
0.0773522 0.0801107 1.47156
-0.44248 0.0156478 1.55979
-0.0250606 0.0143295 1.61323
-0.46901 0.114935 1.30633
0.157935 0.252853 1.81861
-0.0852106 0.140357 1.72148
